# 3D point list generated by blender-exporter-colmap
# POINTS-ID X Y Z R G B NX NY NZ
248 -0.980785071849823 2.2832577228546143 -0.42981237173080444 0.5 0.5 0.5 -0.8594004511833191 -4.294929027557373 -0.19938594102859497
249 -0.923879086971283 2.2896201610565186 -0.6173208355903625 0.5 0.5 0.5 -0.7942530512809753 -4.467789173126221 -0.3564273715019226
250 -0.831468939781189 2.2954835891723633 -0.7901294231414795 0.5 0.5 0.5 -0.7246482968330383 -4.159740924835205 -0.5123335719108582
251 -0.7071058750152588 2.3006234169006348 -0.9415974020957947 0.5 0.5 0.5 -0.6318328976631165 -3.424431562423706 -0.673778235912323
252 -0.5555691123008728 2.3048408031463623 -1.0659037828445435 0.5 0.5 0.5 -0.5042778849601746 -2.3738322257995605 -0.820013165473938
253 -0.38268208503723145 2.3079752922058105 -1.1582719087600708 0.5 0.5 0.5 -0.350742369890213 -1.4486675262451172 -0.9207424521446228
254 -0.19508881866931915 2.3099050521850586 -1.2151515483856201 0.5 0.5 0.5 -0.18449367582798004 -0.9213528633117676 -0.9762551188468933
255 0.0 2.3105568885803223 -1.234357237815857 0.5 0.5 0.5 -0.009276713244616985 -0.799759030342102 -0.9949220418930054
256 0.0 6.354298114776611 -2.2650084495544434 0.5 0.5 0.5 1.6037992622841557e-07 -9.06884479522705 -0.14215369522571564
257 0.19509032368659973 6.363307476043701 -2.2480342388153076 0.5 0.5 0.5 0.03835434839129448 -9.062057495117188 -0.14212757349014282
258 0.3826834559440613 6.389990329742432 -2.1977641582489014 0.5 0.5 0.5 0.07991923391819 -9.039398193359375 -0.14199891686439514
259 0.5555702447891235 6.433319568634033 -2.1161296367645264 0.5 0.5 0.5 0.1289701759815216 -8.992206573486328 -0.14158008992671967
260 0.7071067690849304 6.491632461547852 -2.006267786026001 0.5 0.5 0.5 0.1927090287208557 -8.897537231445312 -0.1403903365135193
261 0.8314696550369263 6.562685966491699 -1.8724007606506348 0.5 0.5 0.5 0.2857617437839508 -8.689433097839355 -0.13707709312438965
262 0.9238795042037964 6.6437506675720215 -1.7196730375289917 0.5 0.5 0.5 0.44215142726898193 -8.135101318359375 -0.1268942803144455
263 0.9807852506637573 6.731709957122803 -1.5539538860321045 0.5 0.5 0.5 0.7218655347824097 -6.286136150360107 -0.09115616977214813
264 0.9999999403953552 6.82318639755249 -1.3816114664077759 0.5 0.5 0.5 0.9892047643661499 -1.342132568359375 -0.0084636015817523
265 0.9807853102684021 6.914661884307861 -1.209269404411316 0.5 0.5 0.5 0.7859579920768738 5.561407089233398 0.11521129310131073
266 0.9238795638084412 7.002622127532959 -1.0435500144958496 0.5 0.5 0.5 0.5006265640258789 7.786612033843994 0.16130922734737396
267 0.8314696550369263 7.083686351776123 -0.8908222317695618 0.5 0.5 0.5 0.33105984330177307 8.487737655639648 0.1758338063955307
268 0.7071067690849304 7.154739856719971 -0.7569552063941956 0.5 0.5 0.5 0.22624455392360687 8.761731147766113 0.18150994181632996
269 0.5555701851844788 7.213051795959473 -0.6470932960510254 0.5 0.5 0.5 0.15268850326538086 8.889493942260742 0.1841566562652588
270 0.38268327713012695 7.256381988525391 -0.5654585361480713 0.5 0.5 0.5 0.09512132406234741 8.954180717468262 0.18549659848213196
271 0.19509008526802063 7.283064365386963 -0.5151882767677307 0.5 0.5 0.5 0.04578685760498047 8.985533714294434 0.18614618480205536
272 -3.259629011154175e-07 7.292074203491211 -0.49821409583091736 0.5 0.5 0.5 -6.464225776880994e-08 8.994965553283691 0.18634162843227386
273 -0.19509072601795197 7.283064365386963 -0.5151883959770203 0.5 0.5 0.5 -0.04578687995672226 8.985532760620117 0.18614619970321655
274 -0.3826838731765747 7.256381988525391 -0.5654588937759399 0.5 0.5 0.5 -0.09512137621641159 8.954180717468262 0.18549668788909912
275 -0.5555707216262817 7.213051795959473 -0.647093653678894 0.5 0.5 0.5 -0.1526886224746704 8.889493942260742 0.1841566413640976
276 -0.7071072459220886 7.154739856719971 -0.7569555640220642 0.5 0.5 0.5 -0.22624513506889343 8.761731147766113 0.1815098524093628
277 -0.8314700126647949 7.083684921264648 -0.89082270860672 0.5 0.5 0.5 -0.3310600221157074 8.487737655639648 0.1758337765932083
278 -0.923879861831665 7.002621650695801 -1.0435506105422974 0.5 0.5 0.5 -0.5006275773048401 7.78660774230957 0.16130907833576202
279 -0.9807854294776917 6.914661407470703 -1.2092701196670532 0.5 0.5 0.5 -0.6886975765228271 6.549609184265137 0.11947827786207199
280 -1.0 6.823185920715332 -1.3816123008728027 0.5 0.5 0.5 -0.9966170787811279 -0.7517305612564087 0.008626256138086319
281 -0.980785071849823 6.731709957122803 -1.5539546012878418 0.5 0.5 0.5 -0.7255870699882507 -6.251556396484375 -0.09000008553266525
282 -0.923879086971283 6.643750190734863 -1.719673991203308 0.5 0.5 0.5 -0.4421509802341461 -8.135103225708008 -0.12689416110515594
283 -0.831468939781189 6.562685489654541 -1.8724017143249512 0.5 0.5 0.5 -0.2857603132724762 -8.689435958862305 -0.1370769888162613
284 -0.7071058750152588 6.491631984710693 -2.0062685012817383 0.5 0.5 0.5 -0.19270829856395721 -8.897537231445312 -0.14039021730422974
285 -0.5555691123008728 6.433319568634033 -2.1161301136016846 0.5 0.5 0.5 -0.12896953523159027 -8.992208480834961 -0.14157995581626892
286 -0.38268208503723145 6.389989852905273 -2.1977646350860596 0.5 0.5 0.5 -0.07991915941238403 -9.039398193359375 -0.1419987678527832
287 -0.19508881866931915 6.363307476043701 -2.248034715652466 0.5 0.5 0.5 -0.03835417702794075 -9.062057495117188 -0.1421276479959488
288 0.0 7.547232627868652 -2.922213315963745 0.5 0.5 0.5 2.1188026266827364e-07 -8.800969123840332 -0.2706969976425171
289 0.19509032368659973 7.552340984344482 -2.9036881923675537 0.5 0.5 0.5 0.06186541169881821 -8.784750938415527 -0.26994335651397705
290 0.3826834559440613 7.567471981048584 -2.8488237857818604 0.5 0.5 0.5 0.127979576587677 -8.731267929077148 -0.26748889684677124
291 0.5555702447891235 7.592043399810791 -2.7597286701202393 0.5 0.5 0.5 0.20367924869060516 -8.622973442077637 -0.2626280188560486
292 0.7071067690849304 7.625110626220703 -2.639826536178589 0.5 0.5 0.5 0.2969130277633667 -8.417135238647461 -0.2536531388759613
293 0.8314696550369263 7.665404319763184 -2.493725061416626 0.5 0.5 0.5 0.42043596506118774 -8.009799003601074 -0.23644649982452393
294 0.9238795042037964 7.711374759674072 -2.327040195465088 0.5 0.5 0.5 0.5922028422355652 -7.136847972869873 -0.20086537301540375
295 0.9807852506637573 7.76125431060791 -2.1461760997772217 0.5 0.5 0.5 0.815250813961029 -5.1721014976501465 -0.12605810165405273
296 0.9999999403953552 7.8131279945373535 -1.9580837488174438 0.5 0.5 0.5 0.9938895106315613 -1.0136358737945557 0.002702238503843546
297 0.9807853102684021 7.865002155303955 -1.7699915170669556 0.5 0.5 0.5 0.8431313633918762 4.7521796226501465 0.13808003067970276
298 0.9238795638084412 7.914882183074951 -1.5891274213790894 0.5 0.5 0.5 0.5578484535217285 7.369737148284912 0.199176624417305
299 0.8314696550369263 7.960852146148682 -1.422442078590393 0.5 0.5 0.5 0.3773883581161499 8.22825813293457 0.2201337069272995
300 0.7071067690849304 8.001145362854004 -1.2763410806655884 0.5 0.5 0.5 0.26043182611465454 8.582745552062988 0.22779543697834015
301 0.5555701851844788 8.034212112426758 -1.1564390659332275 0.5 0.5 0.5 0.1761685311794281 8.754865646362305 0.23038651049137115
302 0.38268327713012695 8.058783531188965 -1.0673441886901855 0.5 0.5 0.5 0.10964808613061905 8.844282150268555 0.23095449805259705
303 0.19509008526802063 8.07391357421875 -1.012479543685913 0.5 0.5 0.5 0.05269823968410492 8.888279914855957 0.2308690845966339
304 -3.259629011154175e-07 8.079024314880371 -0.9939540028572083 0.5 0.5 0.5 -1.0257542015779109e-07 8.901611328125 0.2307753711938858
305 -0.19509072601795197 8.07391357421875 -1.012479543685913 0.5 0.5 0.5 -0.052698541432619095 8.88827896118164 0.23086893558502197
306 -0.3826838731765747 8.058783531188965 -1.0673445463180542 0.5 0.5 0.5 -0.10964839160442352 8.844280242919922 0.23095464706420898
307 -0.5555707216262817 8.034212112426758 -1.1564394235610962 0.5 0.5 0.5 -0.1761687994003296 8.754865646362305 0.23038655519485474
308 -0.7071072459220886 8.001145362854004 -1.2763415575027466 0.5 0.5 0.5 -0.2604321241378784 8.582744598388672 0.22779551148414612
309 -0.8314700126647949 7.960852146148682 -1.4224423170089722 0.5 0.5 0.5 -0.3773891031742096 8.228254318237305 0.22013382613658905
310 -0.923879861831665 7.914881706237793 -1.589128017425537 0.5 0.5 0.5 -0.5578492283821106 7.36973237991333 0.1991766095161438
311 -0.9807854294776917 7.865001678466797 -1.7699922323226929 0.5 0.5 0.5 -0.8431322574615479 4.752167224884033 0.13807973265647888
312 -1.0 7.813127517700195 -1.9580849409103394 0.5 0.5 0.5 -0.9938891530036926 -1.0136665105819702 0.002701440593227744
313 -0.980785071849823 7.76125431060791 -2.146177053451538 0.5 0.5 0.5 -0.8152495622634888 -5.172115802764893 -0.1260586529970169
314 -0.923879086971283 7.711373805999756 -2.3270413875579834 0.5 0.5 0.5 -0.5922029614448547 -7.136845588684082 -0.20086570084095
315 -0.831468939781189 7.665404319763184 -2.4937264919281006 0.5 0.5 0.5 -0.4204350709915161 -8.009801864624023 -0.23644712567329407
316 -0.7071058750152588 7.625110626220703 -2.6398274898529053 0.5 0.5 0.5 -0.29691281914711 -8.417133331298828 -0.25365346670150757
317 -0.5555691123008728 7.592042922973633 -2.7597291469573975 0.5 0.5 0.5 -0.20367860794067383 -8.622973442077637 -0.2626281976699829
318 -0.38268208503723145 7.567472457885742 -2.8488242626190186 0.5 0.5 0.5 -0.12797898054122925 -8.731267929077148 -0.2674887180328369
319 -0.19508881866931915 7.552340984344482 -2.903688669204712 0.5 0.5 0.5 -0.06186512112617493 -8.784749984741211 -0.2699436545372009
320 0.19509032368659973 5.4609150886535645 -1.6361098289489746 0.5 0.5 0.5 0.053114693611860275 -8.89622688293457 -0.2273334264755249
321 0.3826834559440613 5.483698844909668 -1.5839569568634033 0.5 0.5 0.5 0.11020763218402863 -8.854536056518555 -0.2262679636478424
322 0.5555702447891235 5.520698070526123 -1.4992645978927612 0.5 0.5 0.5 0.1764514297246933 -8.769018173217773 -0.22408264875411987
323 0.7071067690849304 5.570490837097168 -1.385287880897522 0.5 0.5 0.5 0.26014381647109985 -8.602070808410645 -0.21981658041477203
324 0.8314696550369263 5.631162166595459 -1.246407389640808 0.5 0.5 0.5 0.3766764998435974 -8.252623558044434 -0.21088671684265137
325 0.9238795042037964 5.700383186340332 -1.0879591703414917 0.5 0.5 0.5 0.5555509924888611 -7.40751314163208 -0.1892908811569214
326 0.9807851910591125 5.775491714477539 -0.9160332679748535 0.5 0.5 0.5 0.731437623500824 -6.116257667541504 -0.13604433834552765
327 0.9999999403953552 5.853601455688477 -0.7372360229492188 0.5 0.5 0.5 0.9963094592094421 0.7859954833984375 -0.00783593486994505
328 0.9807853102684021 5.931711196899414 -0.5584390163421631 0.5 0.5 0.5 0.7592645287513733 5.886568069458008 0.10246797651052475
329 0.9238795638084412 6.0068206787109375 -0.38651296496391296 0.5 0.5 0.5 0.4907580614089966 7.858376502990723 0.15076392889022827
330 0.8314696550369263 6.076040744781494 -0.2280651181936264 0.5 0.5 0.5 0.32596302032470703 8.520068168640137 0.16725251078605652
331 0.7071067690849304 6.136713027954102 -0.08918407559394836 0.5 0.5 0.5 0.22283019125461578 8.7831392288208 0.1738917976617813
332 0.5555701851844788 6.186505317687988 0.02479243092238903 0.5 0.5 0.5 0.15033023059368134 8.905997276306152 0.1770567148923874
333 0.38268327713012695 6.223504066467285 0.10948474705219269 0.5 0.5 0.5 0.093622587621212 8.968096733093262 0.17869478464126587
334 0.19509008526802063 6.246288299560547 0.16163770854473114 0.5 0.5 0.5 0.04505722224712372 8.998143196105957 0.1795036941766739
335 -3.241002559661865e-07 6.253981590270996 0.17924782633781433 0.5 0.5 0.5 -2.9713131954878236e-09 9.00717544555664 0.17974978685379028
336 -0.19509072601795197 6.246288299560547 0.16163770854473114 0.5 0.5 0.5 -0.0450575165450573 8.998143196105957 0.17950372397899628
337 -0.3826838731765747 6.223504066467285 0.10948438942432404 0.5 0.5 0.5 -0.09362291544675827 8.968095779418945 0.1786947101354599
338 -0.5555707216262817 6.186505317687988 0.024791954085230827 0.5 0.5 0.5 -0.1503305435180664 8.905998229980469 0.177056685090065
339 -0.7071072459220886 6.136712074279785 -0.08918455243110657 0.5 0.5 0.5 -0.22283050417900085 8.783138275146484 0.1738917976617813
340 -0.8314700126647949 6.076040744781494 -0.2280655950307846 0.5 0.5 0.5 -0.32596373558044434 8.520065307617188 0.16725245118141174
341 -0.923879861831665 6.006819725036621 -0.38651353120803833 0.5 0.5 0.5 -0.4907589256763458 7.858373641967773 0.15076369047164917
342 -0.9807854294776917 5.931711196899414 -0.5584396123886108 0.5 0.5 0.5 -0.7558486461639404 5.92120361328125 0.10385089367628098
343 -1.0 5.85360050201416 -0.7372368574142456 0.5 0.5 0.5 -0.9896724820137024 1.3109568357467651 0.0108348298817873
344 -0.980785071849823 5.7754902839660645 -0.9160339832305908 0.5 0.5 0.5 -0.8228316903114319 -5.062739372253418 -0.1293729841709137
345 -0.923879086971283 5.700381755828857 -1.0879602432250977 0.5 0.5 0.5 -0.555550217628479 -7.407517910003662 -0.1892910748720169
346 -0.831468939781189 5.631161689758301 -1.246408224105835 0.5 0.5 0.5 -0.37667569518089294 -8.252626419067383 -0.21088683605194092
347 -0.7071058750152588 5.57049036026001 -1.3852888345718384 0.5 0.5 0.5 -0.26014313101768494 -8.602073669433594 -0.21981647610664368
348 -0.5555691123008728 5.520697593688965 -1.4992653131484985 0.5 0.5 0.5 -0.1764509677886963 -8.769018173217773 -0.22408272325992584
349 -0.38268208503723145 5.483698844909668 -1.5839574337005615 0.5 0.5 0.5 -0.11020732671022415 -8.854536056518555 -0.22626811265945435
350 -0.19508881866931915 5.460914134979248 -1.6361103057861328 0.5 0.5 0.5 -0.05311458557844162 -8.89622688293457 -0.22733348608016968
351 0.0 5.453221321105957 -1.6537201404571533 0.5 0.5 0.5 2.390193856172118e-07 -8.908802032470703 -0.22765479981899261
352 -0.013091495260596275 3.5185928344726562 -0.9339064359664917 0.5 0.5 0.5 -0.053714148700237274 0.2563413679599762 -0.9987265467643738
353 0.1762964129447937 3.51114559173584 -0.9513463377952576 0.5 0.5 0.5 0.009587958455085754 0.39035266637802124 -0.9998385906219482
354 0.3573065400123596 3.4967081546783447 -0.9609489440917969 0.5 0.5 0.5 0.1281682550907135 0.8979507088661194 -0.9885704517364502
355 0.530758261680603 3.474187135696411 -0.9597889184951782 0.5 0.5 0.5 0.293197363615036 2.103440046310425 -0.9319024085998535
356 0.6884005069732666 3.4476301670074463 -0.9323511123657227 0.5 0.5 0.5 0.49730050563812256 2.151764154434204 -0.8391026854515076
357 0.812645435333252 3.4282636642456055 -0.8447993993759155 0.5 0.5 0.5 0.748566746711731 1.3668032884597778 -0.6485446095466614
358 0.8757324814796448 3.4249913692474365 -0.6775693297386169 0.5 0.5 0.5 0.925068199634552 1.2651053667068481 -0.3561326265335083
359 0.8750098347663879 3.427290439605713 -0.4809567928314209 0.5 0.5 0.5 0.9981335997581482 0.4261104464530945 -0.04043176397681236
360 0.8279041051864624 3.4255571365356445 -0.29127568006515503 0.5 0.5 0.5 0.9730114936828613 -0.0720539465546608 0.23077420890331268
361 0.7449141144752502 3.420715570449829 -0.10909208655357361 0.5 0.5 0.5 0.9181631207466125 -0.1472093015909195 0.39617782831192017
362 0.6394714117050171 3.417370080947876 0.07700033485889435 0.5 0.5 0.5 0.8773515820503235 -0.1687636524438858 0.4798428416252136
363 0.5309054851531982 3.414489269256592 0.2592388987541199 0.5 0.5 0.5 0.8521475195884705 -0.2045748233795166 0.5232404470443726
364 0.43265169858932495 3.4112136363983154 0.42892056703567505 0.5 0.5 0.5 0.8082629442214966 -0.321760892868042 0.5883986949920654
365 0.3365098237991333 3.407453775405884 0.5743718147277832 0.5 0.5 0.5 0.6985599994659424 -0.6685547232627869 0.7130642533302307
366 0.23000600934028625 3.4035484790802 0.6854681968688965 0.5 0.5 0.5 0.48562246561050415 -1.4922162294387817 0.8615788221359253
367 0.11096582561731339 3.398512125015259 0.7501275539398193 0.5 0.5 0.5 0.18352507054805756 -2.292836904525757 0.9547981023788452
368 -0.016031060367822647 3.390911817550659 0.7577265501022339 0.5 0.5 0.5 -0.09680233895778656 -2.2518179416656494 0.9685763120651245
369 -0.14843358099460602 3.3822379112243652 0.7131763696670532 0.5 0.5 0.5 -0.34351444244384766 -1.7600328922271729 0.922491729259491
370 -0.2842533588409424 3.374490737915039 0.6254830360412598 0.5 0.5 0.5 -0.537689208984375 -1.0285334587097168 0.8375246524810791
371 -0.41686302423477173 3.369889259338379 0.5081013441085815 0.5 0.5 0.5 -0.650726854801178 -0.5846211910247803 0.7577271461486816
372 -0.5489255785942078 3.3709402084350586 0.37457120418548584 0.5 0.5 0.5 -0.7086353898048401 -0.4058966338634491 0.704967200756073
373 -0.6846802234649658 3.379283905029297 0.23526403307914734 0.5 0.5 0.5 -0.7595884203910828 -0.39236360788345337 0.6497474312782288
374 -0.8098233342170715 3.3929190635681152 0.09021377563476562 0.5 0.5 0.5 -0.838359534740448 -0.44111141562461853 0.5438150763511658
375 -0.9073477387428284 3.4089255332946777 -0.06284893304109573 0.5 0.5 0.5 -0.9332776665687561 -0.387407511472702 0.357372909784317
376 -0.9645480513572693 3.424561023712158 -0.22563837468624115 0.5 0.5 0.5 -0.9930539727210999 0.07299632579088211 0.11728125810623169
377 -0.9833693504333496 3.437765598297119 -0.4008079469203949 0.5 0.5 0.5 -0.9928358197212219 0.7876819968223572 -0.08453749865293503
378 -0.9740042686462402 3.4473745822906494 -0.5888797640800476 0.5 0.5 0.5 -0.9526916146278381 0.8221472501754761 -0.29188916087150574
379 -0.9060630798339844 3.456278085708618 -0.7551387548446655 0.5 0.5 0.5 -0.8155768513679504 0.9210025072097778 -0.5715288519859314
380 -0.7601145505905151 3.470810890197754 -0.8509923815727234 0.5 0.5 0.5 -0.5829312801361084 1.8347071409225464 -0.7907953262329102
381 -0.5725577473640442 3.488751173019409 -0.8920845985412598 0.5 0.5 0.5 -0.33517226576805115 1.6498552560806274 -0.9277904033660889
382 -0.38608744740486145 3.505284547805786 -0.9105491042137146 0.5 0.5 0.5 -0.18427900969982147 0.5244514346122742 -0.9822277426719666
383 -0.2029024213552475 3.516103506088257 -0.9227917194366455 0.5 0.5 0.5 -0.1014368012547493 0.28901395201683044 -0.9949595928192139
384 0.13881783187389374 1.1255320310592651 -0.971846342086792 0.5 0.5 0.5 0.22456832230091095 -2.49042010307312 -0.9318464398384094
385 0.27416130900382996 1.1308187246322632 -0.888211727142334 0.5 0.5 0.5 0.5123061537742615 -1.4911013841629028 -0.8408845067024231
386 0.39165055751800537 1.1378591060638428 -0.766516923904419 0.5 0.5 0.5 0.698222279548645 -0.7048875093460083 -0.7106446027755737
387 0.49537336826324463 1.1457009315490723 -0.6182667016983032 0.5 0.5 0.5 0.79396653175354 -0.3956340253353119 -0.6058360934257507
388 0.5962429046630859 1.1532361507415771 -0.45659589767456055 0.5 0.5 0.5 0.8370457291603088 -0.28770923614501953 -0.5458142161369324
389 0.7018593549728394 1.1594247817993164 -0.294960618019104 0.5 0.5 0.5 0.869998037815094 -0.26524755358695984 -0.49181899428367615
390 0.7990977764129639 1.164463996887207 -0.13569630682468414 0.5 0.5 0.5 0.9219334721565247 -0.25202447175979614 -0.3859946131706238
391 0.8723678588867188 1.1685774326324463 0.018353544175624847 0.5 0.5 0.5 0.9798426628112793 -0.11991424113512039 -0.19916480779647827
392 0.9047399163246155 1.1719017028808594 0.1628122478723526 0.5 0.5 0.5 0.9970146417617798 0.3548014461994171 0.06625597178936005
393 0.8862012028694153 1.1743011474609375 0.29085275530815125 0.5 0.5 0.5 0.9373606443405151 0.7602812051773071 0.33712995052337646
394 0.8141962289810181 1.1755928993225098 0.3960343599319458 0.5 0.5 0.5 0.7951706051826477 1.0217238664627075 0.5944293737411499
395 0.700565755367279 1.1761040687561035 0.4799787700176239 0.5 0.5 0.5 0.5996291041374207 0.8204684257507324 0.7939797639846802
396 0.5595312714576721 1.175111174583435 0.5325300097465515 0.5 0.5 0.5 0.4037872552871704 0.5328844785690308 0.9122186899185181
397 0.3956495225429535 1.1733710765838623 0.5599884390830994 0.5 0.5 0.5 0.22223418951034546 0.3628574311733246 0.9736970067024231
398 0.2106877863407135 1.1713334321975708 0.5651730298995972 0.5 0.5 0.5 0.08864325284957886 0.2823388874530792 0.9952329993247986
399 0.009422734379768372 1.170872688293457 0.5686311721801758 0.5 0.5 0.5 0.015451095998287201 0.2663920223712921 0.999131441116333
400 -0.1960938721895218 1.1725304126739502 0.5769593119621277 0.5 0.5 0.5 -0.04567873105406761 0.3036147654056549 0.9980173110961914
401 -0.39601707458496094 1.1757984161376953 0.5848878622055054 0.5 0.5 0.5 -0.15570399165153503 0.4278729557991028 0.9860999584197998
402 -0.575965404510498 1.1785029172897339 0.5690020322799683 0.5 0.5 0.5 -0.3403944671154022 0.7159419059753418 0.9359449148178101
403 -0.7289515137672424 1.1800706386566162 0.524420440196991 0.5 0.5 0.5 -0.5968858599662781 1.2873424291610718 0.787895143032074
404 -0.8408253788948059 1.1791995763778687 0.4394077956676483 0.5 0.5 0.5 -0.82685786485672 1.351567268371582 0.5405830144882202
405 -0.9039453268051147 1.1762641668319702 0.3216906487941742 0.5 0.5 0.5 -0.9487323760986328 0.9303793907165527 0.297860324382782
406 -0.9240947961807251 1.1714316606521606 0.17531578242778778 0.5 0.5 0.5 -0.9960289597511292 0.4968065023422241 0.06987234205007553
407 -0.9006735682487488 1.1666356325149536 0.0263811107724905 0.5 0.5 0.5 -0.9899117350578308 -0.021970083937048912 -0.14164578914642334
408 -0.8399666547775269 1.1625251770019531 -0.11466377228498459 0.5 0.5 0.5 -0.9376658201217651 -0.27680447697639465 -0.34580114483833313
409 -0.7531446814537048 1.1584703922271729 -0.2528493404388428 0.5 0.5 0.5 -0.8737017512321472 -0.2995917499065399 -0.48491808772087097
410 -0.6553036570549011 1.1534782648086548 -0.39792418479919434 0.5 0.5 0.5 -0.8302596211433411 -0.3119286000728607 -0.5558801293373108
411 -0.550382137298584 1.1472070217132568 -0.5505986213684082 0.5 0.5 0.5 -0.7915224432945251 -0.38417908549308777 -0.6091296076774597
412 -0.4412314295768738 1.1397416591644287 -0.7066764235496521 0.5 0.5 0.5 -0.720931887626648 -0.6229122877120972 -0.6887053847312927
413 -0.3180176615715027 1.1325736045837402 -0.8441281914710999 0.5 0.5 0.5 -0.5705938339233398 -1.2028964757919312 -0.8087752461433411
414 -0.17359675467014313 1.1270618438720703 -0.9433510899543762 0.5 0.5 0.5 -0.3384357690811157 -2.041123628616333 -0.9110078811645508
415 -0.011982249096035957 1.124353051185608 -0.9893615245819092 0.5 0.5 0.5 -0.05489357188344002 -2.565905809402466 -0.9543603658676147
416 0.020036060363054276 -1.1535199880599976 -0.5220009684562683 0.5 0.5 0.5 -0.03543100506067276 0.0031479359604418278 -0.9995022416114807
417 0.18024320900440216 -1.1554019451141357 -0.5278046131134033 0.5 0.5 0.5 0.10655374825000763 -0.013147884048521519 -0.9944076538085938
418 0.3078499734401703 -1.1576831340789795 -0.510715663433075 0.5 0.5 0.5 0.27042698860168457 -0.007817937061190605 -0.9628468155860901
419 0.41695550084114075 -1.1602658033370972 -0.47072774171829224 0.5 0.5 0.5 0.4045791029930115 0.0118869012221694 -0.9146363735198975
420 0.5139338970184326 -1.1636368036270142 -0.42542174458503723 0.5 0.5 0.5 0.5298039317131042 0.03428371995687485 -0.8482760190963745
421 0.5851038098335266 -1.1681591272354126 -0.3806131184101105 0.5 0.5 0.5 0.6812735795974731 0.04475744441151619 -0.7321800589561462
422 0.6366837620735168 -1.1763699054718018 -0.3281822204589844 0.5 0.5 0.5 0.8364107012748718 0.04051072522997856 -0.5482227206230164
423 0.6735128164291382 -1.190106987953186 -0.26606839895248413 0.5 0.5 0.5 0.9477258324623108 0.053742699325084686 -0.31916317343711853
424 0.6908982396125793 -1.208871603012085 -0.184715136885643 0.5 0.5 0.5 0.9978150129318237 0.061483219265937805 -0.0658416748046875
425 0.6835243701934814 -1.2338420152664185 -0.07904152572154999 0.5 0.5 0.5 0.9850319623947144 0.08562526851892471 0.17199520766735077
426 0.6523923873901367 -1.2647548913955688 0.04990123584866524 0.5 0.5 0.5 0.93480384349823 0.15427365899085999 0.3545488119125366
427 0.5899069905281067 -1.2940237522125244 0.20044384896755219 0.5 0.5 0.5 0.850749135017395 0.2415143847465515 0.5245685577392578
428 0.4679746627807617 -1.3041099309921265 0.36052656173706055 0.5 0.5 0.5 0.7583127617835999 0.25839823484420776 0.6509252786636353
429 0.342987060546875 -1.2844270467758179 0.5240644812583923 0.5 0.5 0.5 0.6680358648300171 0.20503933727741241 0.7435382008552551
430 0.22308337688446045 -1.2530426979064941 0.6501756310462952 0.5 0.5 0.5 0.47277283668518066 -0.004950842820107937 0.881302535533905
431 0.11361517757177353 -1.2267800569534302 0.7140888571739197 0.5 0.5 0.5 0.18915268778800964 -0.2455449253320694 0.9821234941482544
432 0.010358557105064392 -1.2102820873260498 0.7205318212509155 0.5 0.5 0.5 -0.08365143835544586 -0.2699277102947235 0.9966447949409485
433 -0.08805317431688309 -1.202551007270813 0.6816388964653015 0.5 0.5 0.5 -0.32138943672180176 -0.1383037120103836 0.9471805691719055
434 -0.1950647085905075 -1.2033346891403198 0.6077122688293457 0.5 0.5 0.5 -0.5096968412399292 -0.013863049447536469 0.8604836463928223
435 -0.3099364936351776 -1.2073395252227783 0.5027890801429749 0.5 0.5 0.5 -0.6288406252861023 0.03107808344066143 0.7775710225105286
436 -0.4274807572364807 -1.2057759761810303 0.3826413154602051 0.5 0.5 0.5 -0.683596670627594 0.02265559323132038 0.7299083471298218
437 -0.5500864386558533 -1.1988537311553955 0.2623153328895569 0.5 0.5 0.5 -0.7202696800231934 -0.010924451984465122 0.6937981843948364
438 -0.666161835193634 -1.188616394996643 0.1505466103553772 0.5 0.5 0.5 -0.7912194728851318 -0.048216674476861954 0.6116679906845093
439 -0.7575421333312988 -1.1745572090148926 0.0449269637465477 0.5 0.5 0.5 -0.9063846468925476 -0.029579488560557365 0.4225442111492157
440 -0.8096503615379333 -1.1592943668365479 -0.0595557764172554 0.5 0.5 0.5 -0.9928293228149414 0.25958573818206787 0.11572372913360596
441 -0.8155778646469116 -1.1454726457595825 -0.16097740828990936 0.5 0.5 0.5 -0.9729040861129761 0.7342082262039185 -0.21822232007980347
442 -0.7780821919441223 -1.1350980997085571 -0.2546129524707794 0.5 0.5 0.5 -0.8624792098999023 0.9660188555717468 -0.49674445390701294
443 -0.7013779282569885 -1.1298960447311401 -0.3371143341064453 0.5 0.5 0.5 -0.7021687030792236 0.8355392217636108 -0.7076825499534607
444 -0.5916417837142944 -1.1302317380905151 -0.4021311402320862 0.5 0.5 0.5 -0.5333136916160583 0.4842231273651123 -0.8452013731002808
445 -0.4570996165275574 -1.1352440118789673 -0.4511559009552002 0.5 0.5 0.5 -0.3856191635131836 0.21547789871692657 -0.9228410720825195
446 -0.3050422966480255 -1.1430360078811646 -0.48711660504341125 0.5 0.5 0.5 -0.25773388147354126 0.08878826349973679 -0.9664390087127686
447 -0.1446414738893509 -1.150346040725708 -0.50967937707901 0.5 0.5 0.5 -0.14270566403865814 0.03693142160773277 -0.9899432063102722
448 0.19509032368659973 -3.445516347885132 -0.9749789237976074 0.5 0.5 0.5 0.1515907645225525 -5.789122104644775 -0.7515933513641357
449 0.3826834559440613 -3.4454185962677 -0.9180662035942078 0.5 0.5 0.5 0.29441338777542114 -5.809659481048584 -0.7065333127975464
450 0.5555702447891235 -3.4452595710754395 -0.8256450891494751 0.5 0.5 0.5 0.4268445670604706 -5.815617561340332 -0.6357765793800354
451 0.7071067690849304 -3.4450454711914062 -0.7012670636177063 0.5 0.5 0.5 0.5442287921905518 -5.810934066772461 -0.5410385727882385
452 0.8314696550369263 -3.444784641265869 -0.549712061882019 0.5 0.5 0.5 0.642058789730072 -5.7992262840271 -0.4249271750450134
453 0.9238795042037964 -3.4444870948791504 -0.3768042027950287 0.5 0.5 0.5 0.716046929359436 -5.78483247756958 -0.29101136326789856
454 0.9807852506637573 -3.444164276123047 -0.18918828666210175 0.5 0.5 0.5 0.7623498439788818 -5.772924423217773 -0.14403587579727173
455 1.0 -3.443828582763672 0.005925762467086315 0.5 0.5 0.5 0.7781320810317993 -5.768189907073975 0.009947188198566437
456 0.9807853102684021 -3.443492889404297 0.20103980600833893 0.5 0.5 0.5 0.7623249292373657 -5.772586345672607 0.16394014656543732
457 0.9238795638084412 -3.4431700706481934 0.38865572214126587 0.5 0.5 0.5 0.7160024046897888 -5.784163475036621 0.31094029545783997
458 0.8314696550369263 -3.4428725242614746 0.5615637302398682 0.5 0.5 0.5 0.6420034766197205 -5.798244953155518 0.44488343596458435
459 0.7071067690849304 -3.4426116943359375 0.7131187319755554 0.5 0.5 0.5 0.5441714525222778 -5.8096747398376465 0.5610111355781555
460 0.5555701851844788 -3.4423975944519043 0.837496817111969 0.5 0.5 0.5 0.42679283022880554 -5.814136028289795 0.6557429432868958
461 0.38268327713012695 -3.4422385692596436 0.9299179911613464 0.5 0.5 0.5 0.2943729758262634 -5.808032989501953 0.7264599800109863
462 0.19509008526802063 -3.442140817642212 0.9868306517601013 0.5 0.5 0.5 0.15156550705432892 -5.787445068359375 0.7714332938194275
463 -3.2584136988589307e-07 -3.442107677459717 1.0060477256774902 0.5 0.5 0.5 0.003059138311073184 -5.746434688568115 0.7899002432823181
464 -0.19509072601795197 -3.442140817642212 0.9868305325508118 0.5 0.5 0.5 -0.146690234541893 -5.674068450927734 0.7822341918945312
465 -0.3826838731765747 -3.4422385692596436 0.9299176931381226 0.5 0.5 0.5 -0.2940134108066559 -5.547698020935059 0.750220775604248
466 -0.5555707216262817 -3.4423975944519043 0.8374964594841003 0.5 0.5 0.5 -0.4372710585594177 -5.314035892486572 0.6975696086883545
467 -0.7071072459220886 -3.4426116943359375 0.713118314743042 0.5 0.5 0.5 -0.5801714658737183 -4.821928977966309 0.6309409141540527
468 -0.8314700126647949 -3.4428725242614746 0.5615631937980652 0.5 0.5 0.5 -0.7396960258483887 -3.5242128372192383 0.558857262134552
469 -0.923879861831665 -3.4431700706481934 0.3886551260948181 0.5 0.5 0.5 -0.8980780839920044 -0.0024992136750370264 0.4398950934410095
470 -0.9807854294776917 -3.443492889404297 0.20103906095027924 0.5 0.5 0.5 -0.9115177392959595 3.209699869155884 0.2113211452960968
471 -1.0 -3.443828582763672 0.005924872122704983 0.5 0.5 0.5 -0.9011756181716919 3.980644702911377 -0.006869284901767969
472 -0.980785071849823 -3.444164276123047 -0.18918928503990173 0.5 0.5 0.5 -0.911559522151947 3.207718849182129 -0.22240467369556427
473 -0.923879086971283 -3.4444870948791504 -0.37680524587631226 0.5 0.5 0.5 -0.8980805277824402 -0.0035951423924416304 -0.43987956643104553
474 -0.831468939781189 -3.444784641265869 -0.549713134765625 0.5 0.5 0.5 -0.7398015856742859 -3.523167848587036 -0.5468121767044067
475 -0.7071058750152588 -3.4450454711914062 -0.7012679576873779 0.5 0.5 0.5 -0.5802724957466125 -4.821743011474609 -0.6144668459892273
476 -0.5555691123008728 -3.4452595710754395 -0.8256458640098572 0.5 0.5 0.5 -0.4373389184474945 -5.314622402191162 -0.6794006824493408
477 -0.38268208503723145 -3.4454185962677 -0.9180667996406555 0.5 0.5 0.5 -0.2940516471862793 -5.548803329467773 -0.7312399744987488
478 -0.19508881866931915 -3.445516347885132 -0.9749792218208313 0.5 0.5 0.5 -0.146703839302063 -5.675507068634033 -0.762808620929718
479 0.0 -3.445549488067627 -0.9941959977149963 0.5 0.5 0.5 0.0030661332421004772 -5.748055934906006 -0.7702145576477051
480 0.0 -5.741435527801514 -0.9902454614639282 0.5 0.5 0.5 0.0016038670437410474 5.848546504974365 -0.7810260057449341
481 0.19509032368659973 -5.741402626037598 -0.9710283875465393 0.5 0.5 0.5 0.13957509398460388 5.830232620239258 -0.7699263691902161
482 0.3826834559440613 -5.741304397583008 -0.9141156673431396 0.5 0.5 0.5 0.2775207459926605 5.763777732849121 -0.7372664213180542
483 0.5555702447891235 -5.741145610809326 -0.821694552898407 0.5 0.5 0.5 0.4168010354042053 5.61736536026001 -0.6820396780967712
484 0.7071067690849304 -5.740931510925293 -0.6973165273666382 0.5 0.5 0.5 0.5653688907623291 5.273720741271973 -0.6011439561843872
485 0.8314696550369263 -5.740670680999756 -0.5457615256309509 0.5 0.5 0.5 0.7200769782066345 4.735708236694336 -0.4724055826663971
486 0.9238795042037964 -5.740373134613037 -0.3728536367416382 0.5 0.5 0.5 0.793156087398529 4.917422294616699 -0.29854530096054077
487 0.9807852506637573 -5.740050315856934 -0.18523772060871124 0.5 0.5 0.5 0.8019819855690002 5.382412433624268 -0.12457674741744995
488 1.0 -5.739714622497559 0.009876321069896221 0.5 0.5 0.5 0.7863287329673767 5.6661176681518555 0.022236406803131104
489 0.9807853102684021 -5.739378929138184 0.20499037206172943 0.5 0.5 0.5 0.7583631277084351 5.788242340087891 0.15639334917068481
490 0.9238795638084412 -5.73905611038208 0.39260628819465637 0.5 0.5 0.5 0.7098512649536133 5.836673736572266 0.2937208116054535
491 0.8314696550369263 -5.738758563995361 0.5655142664909363 0.5 0.5 0.5 0.6380574107170105 5.855169773101807 0.4218212366104126
492 0.7071067690849304 -5.738497734069824 0.7170692682266235 0.5 0.5 0.5 0.5489007234573364 5.851203918457031 0.5311921238899231
493 0.5555701851844788 -5.738283634185791 0.8414473533630371 0.5 0.5 0.5 0.44218710064888 5.808477401733398 0.626151442527771
494 0.38268327713012695 -5.738124847412109 0.9338685274124146 0.5 0.5 0.5 0.31529179215431213 5.720737934112549 0.7062847018241882
495 0.19509008526802063 -5.7380266189575195 0.9907811880111694 0.5 0.5 0.5 0.1656855195760727 5.621227741241455 0.7637685537338257
496 -3.2584136988589307e-07 -5.7379937171936035 1.0099982023239136 0.5 0.5 0.5 -0.0005853824550285935 5.584939956665039 0.7844275832176208
497 -0.19509072601795197 -5.7380266189575195 0.9907810688018799 0.5 0.5 0.5 -0.16607774794101715 5.653116226196289 0.7608681321144104
498 -0.3826838731765747 -5.738124847412109 0.9338682293891907 0.5 0.5 0.5 -0.31392666697502136 5.763084888458252 0.7027769088745117
499 -0.5555707216262817 -5.738283634185791 0.8414469957351685 0.5 0.5 0.5 -0.4389325678348541 5.840529918670654 0.6248692870140076
500 -0.7071072459220886 -5.738497734069824 0.7170688509941101 0.5 0.5 0.5 -0.5467535853385925 5.878588676452637 0.5297979712486267
501 -0.8314700126647949 -5.738758563995361 0.5655137300491333 0.5 0.5 0.5 -0.6370874047279358 5.888100624084473 0.4178691804409027
502 -0.923879861831665 -5.73905611038208 0.3926056921482086 0.5 0.5 0.5 -0.7071595191955566 5.877169132232666 0.2906554043292999
503 -0.9807854294776917 -5.739378929138184 0.20498962700366974 0.5 0.5 0.5 -0.7540894150733948 5.844797134399414 0.152224600315094
504 -1.0 -5.739714622497559 0.009875430725514889 0.5 0.5 0.5 -0.7777889966964722 5.768200874328613 0.013269099406898022
505 -0.980785071849823 -5.740050315856934 -0.18523871898651123 0.5 0.5 0.5 -0.7782949805259705 5.646164894104004 -0.1371367871761322
506 -0.923879086971283 -5.740373134613037 -0.37285467982292175 0.5 0.5 0.5 -0.7385867238044739 5.576938152313232 -0.3022759258747101
507 -0.831468939781189 -5.740670680999756 -0.5457625985145569 0.5 0.5 0.5 -0.6716790795326233 5.520845890045166 -0.44239068031311035
508 -0.7071058750152588 -5.740931510925293 -0.6973174214363098 0.5 0.5 0.5 -0.5674798488616943 5.553470134735107 -0.5683331489562988
509 -0.5555691123008728 -5.741145610809326 -0.8216953277587891 0.5 0.5 0.5 -0.4317269027233124 5.6672444343566895 -0.6675848960876465
510 -0.38268208503723145 -5.741304397583008 -0.9141162633895874 0.5 0.5 0.5 -0.290497750043869 5.75515604019165 -0.7329812049865723
511 -0.19508881866931915 -5.741402626037598 -0.9710286855697632 0.5 0.5 0.5 -0.14267520606517792 5.82230281829834 -0.7700580954551697
512 0.164717435836792 -8.037288665771484 -0.915054976940155 0.5 0.5 0.5 0.170392245054245 3.8219408988952637 -0.8997877240180969
513 0.3231048583984375 -8.037190437316895 -0.8611606955528259 0.5 0.5 0.5 0.34299710392951965 3.525789260864258 -0.8633968830108643
514 0.4690755307674408 -8.037031173706055 -0.7736411094665527 0.5 0.5 0.5 0.5165064334869385 2.957472324371338 -0.7985450625419617
515 0.5970199108123779 -8.036816596984863 -0.655859649181366 0.5 0.5 0.5 0.6796272397041321 2.2501447200775146 -0.6953399777412415
516 0.7020211815834045 -8.036556243896484 -0.5123423933982849 0.5 0.5 0.5 0.8154208660125732 1.6573572158813477 -0.5529041290283203
517 0.7800440788269043 -8.036258697509766 -0.34860479831695557 0.5 0.5 0.5 0.9143806099891663 1.278380274772644 -0.3823925256729126
518 0.8280903697013855 -8.03593635559082 -0.17093920707702637 0.5 0.5 0.5 0.9739488959312439 1.0812101364135742 -0.1956729292869568
519 0.8443136215209961 -8.035600662231445 0.013826865702867508 0.5 0.5 0.5 0.9937983155250549 1.0211960077285767 -0.0017520783003419638
520 0.8280904293060303 -8.03526496887207 0.1985929310321808 0.5 0.5 0.5 0.9739475846290588 1.081820011138916 0.19196094572544098
521 0.7800441384315491 -8.034941673278809 0.3762585520744324 0.5 0.5 0.5 0.9143795967102051 1.2795579433441162 0.37799903750419617
522 0.7020211815834045 -8.03464412689209 0.5399962067604065 0.5 0.5 0.5 0.8154227137565613 1.6590194702148438 0.5472031831741333
523 0.5970199108123779 -8.034383773803711 0.6835135221481323 0.5 0.5 0.5 0.6796342730522156 2.252162456512451 0.6875998377799988
524 0.4690755009651184 -8.03416919708252 0.8012951016426086 0.5 0.5 0.5 0.5165193676948547 2.959689140319824 0.7883776426315308
525 0.32310470938682556 -8.03400993347168 0.8888146877288818 0.5 0.5 0.5 0.34301114082336426 3.528106212615967 0.8512845635414124
526 0.16471724212169647 -8.03391170501709 0.9427089095115662 0.5 0.5 0.5 0.17040102183818817 3.8243179321289062 0.8866645693778992
527 -2.5662558300609817e-07 -8.033879280090332 0.9609068036079407 0.5 0.5 0.5 -4.3648921632666315e-07 3.907318353652954 0.8984420299530029
528 -0.16471773386001587 -8.03391170501709 0.9427087903022766 0.5 0.5 0.5 -0.17040181159973145 3.8243134021759033 0.8866645693778992
529 -0.32310518622398376 -8.03400993347168 0.888814389705658 0.5 0.5 0.5 -0.34301167726516724 3.5281009674072266 0.8512845039367676
530 -0.46907591819763184 -8.03416919708252 0.80129474401474 0.5 0.5 0.5 -0.5165197253227234 2.959684133529663 0.788377583026886
531 -0.5970202684402466 -8.034383773803711 0.6835131049156189 0.5 0.5 0.5 -0.6796347498893738 2.252159357070923 0.6875994801521301
532 -0.7020214200019836 -8.03464412689209 0.5399957299232483 0.5 0.5 0.5 -0.815422773361206 1.6590147018432617 0.5472031235694885
533 -0.7800443172454834 -8.034941673278809 0.376257985830307 0.5 0.5 0.5 -0.9143797755241394 1.279555320739746 0.3779986500740051
534 -0.828090488910675 -8.03526496887207 0.19859221577644348 0.5 0.5 0.5 -0.9739477634429932 1.0818185806274414 0.19196023046970367
535 -0.8443136215209961 -8.035600662231445 0.013826022855937481 0.5 0.5 0.5 -0.9937981963157654 1.0211925506591797 -0.0017526112496852875
536 -0.8280901908874512 -8.03593635559082 -0.17094014585018158 0.5 0.5 0.5 -0.97394859790802 1.0812089443206787 -0.1956740915775299
537 -0.7800436615943909 -8.036258697509766 -0.34860578179359436 0.5 0.5 0.5 -0.9143800139427185 1.2783814668655396 -0.382394015789032
538 -0.702020525932312 -8.036556243896484 -0.5123434066772461 0.5 0.5 0.5 -0.8154197335243225 1.6573611497879028 -0.5529056787490845
539 -0.5970190763473511 -8.036816596984863 -0.6558604836463928 0.5 0.5 0.5 -0.6796262264251709 2.250148296356201 -0.6953408122062683
540 -0.469074547290802 -8.037031173706055 -0.7736418843269348 0.5 0.5 0.5 -0.5165051221847534 2.9574787616729736 -0.7985455393791199
541 -0.323103666305542 -8.037190437316895 -0.8611612915992737 0.5 0.5 0.5 -0.3429957330226898 3.525792121887207 -0.8633973598480225
542 -0.16471612453460693 -8.037288665771484 -0.9150552749633789 0.5 0.5 0.5 -0.17039130628108978 3.821942090988159 -0.8997879028320312
543 1.8486765895886492e-08 -8.037321090698242 -0.9332529306411743 0.5 0.5 0.5 4.6088192107163195e-07 3.9049203395843506 -0.9118478894233704
544 0.19509032368659973 -8.611259460449219 -0.9660901427268982 0.5 0.5 0.5 0.19058629870414734 3.306201934814453 -0.919008195400238
545 0.3826834559440613 -8.611161231994629 -0.9091774225234985 0.5 0.5 0.5 0.36308300495147705 3.6920230388641357 -0.8469451665878296
546 0.5555702447891235 -8.611001968383789 -0.8167563080787659 0.5 0.5 0.5 0.5088616013526917 4.113850116729736 -0.7422005534172058
547 0.7071067690849304 -8.610788345336914 -0.6923782825469971 0.5 0.5 0.5 0.6271727085113525 4.462094306945801 -0.6164119839668274
548 0.8314696550369263 -8.610527992248535 -0.5408232808113098 0.5 0.5 0.5 0.7192878723144531 4.711624622344971 -0.47647541761398315
549 0.9238795042037964 -8.610230445861816 -0.36791545152664185 0.5 0.5 0.5 0.785658597946167 4.873226165771484 -0.32637208700180054
550 0.9807852506637573 -8.609907150268555 -0.1802995204925537 0.5 0.5 0.5 0.8258786797523499 4.96297025680542 -0.16930219531059265
551 1.0 -8.60957145690918 0.014814519323408604 0.5 0.5 0.5 0.8393700122833252 4.991811275482178 -0.00859215296804905
552 0.9807853102684021 -8.609235763549805 0.20992857217788696 0.5 0.5 0.5 0.8258845806121826 4.963450908660889 0.15221771597862244
553 0.9238795638084412 -8.608912467956543 0.3975444734096527 0.5 0.5 0.5 0.7856701016426086 4.874166488647461 0.3095991313457489
554 0.8314696550369263 -8.608614921569824 0.5704525113105774 0.5 0.5 0.5 0.7193038463592529 4.7129902839660645 0.4602630138397217
555 0.7071067690849304 -8.608354568481445 0.7220075130462646 0.5 0.5 0.5 0.6271912455558777 4.463836193084717 0.6010648012161255
556 0.5555701851844788 -8.60814094543457 0.8463855981826782 0.5 0.5 0.5 0.5088791847229004 4.115910053253174 0.7280585169792175
557 0.38268327713012695 -8.60798168182373 0.9388067722320557 0.5 0.5 0.5 0.36309581995010376 3.694340944290161 0.8342598676681519
558 0.19509008526802063 -8.60788345336914 0.9957194328308105 0.5 0.5 0.5 0.19059215486049652 3.308713436126709 0.9076517224311829
559 -3.2584136988589307e-07 -8.607850074768066 1.0149364471435547 0.5 0.5 0.5 -4.5123579184291884e-07 3.1451709270477295 0.9342950582504272
560 -0.19509072601795197 -8.60788345336914 0.995719313621521 0.5 0.5 0.5 -0.19059303402900696 3.30871319770813 0.9076516032218933
561 -0.3826838731765747 -8.60798168182373 0.9388064742088318 0.5 0.5 0.5 -0.36309629678726196 3.6943440437316895 0.8342595100402832
562 -0.5555707216262817 -8.60814094543457 0.8463852405548096 0.5 0.5 0.5 -0.5088794827461243 4.115911960601807 0.7280581593513489
563 -0.7071072459220886 -8.608354568481445 0.7220070958137512 0.5 0.5 0.5 -0.6271915435791016 4.463839530944824 0.6010643243789673
564 -0.8314700126647949 -8.608614921569824 0.5704519748687744 0.5 0.5 0.5 -0.7193039655685425 4.712992191314697 0.4602625072002411
565 -0.923879861831665 -8.608912467956543 0.39754387736320496 0.5 0.5 0.5 -0.7856702208518982 4.874168872833252 0.3095985949039459
566 -0.9807854294776917 -8.609235763549805 0.20992782711982727 0.5 0.5 0.5 -0.8258846402168274 4.9634528160095215 0.15221698582172394
567 -1.0 -8.60957145690918 0.014813628979027271 0.5 0.5 0.5 -0.8393700122833252 4.991810321807861 -0.0085927564650774
568 -0.980785071849823 -8.609907150268555 -0.1803005188703537 0.5 0.5 0.5 -0.8258786201477051 4.9629693031311035 -0.16930294036865234
569 -0.923879086971283 -8.610230445861816 -0.3679164946079254 0.5 0.5 0.5 -0.7856582403182983 4.873226642608643 -0.32637301087379456
570 -0.831468939781189 -8.610527992248535 -0.5408243536949158 0.5 0.5 0.5 -0.7192872166633606 4.711625099182129 -0.4764762818813324
571 -0.7071058750152588 -8.610788345336914 -0.6923791766166687 0.5 0.5 0.5 -0.6271719336509705 4.462094306945801 -0.6164127588272095
572 -0.5555691123008728 -8.611001968383789 -0.816757082939148 0.5 0.5 0.5 -0.5088610053062439 4.113847255706787 -0.7422012090682983
573 -0.38268208503723145 -8.611161231994629 -0.9091780185699463 0.5 0.5 0.5 -0.36308202147483826 3.6920182704925537 -0.8469460010528564
574 -0.19508881866931915 -8.611259460449219 -0.9660904407501221 0.5 0.5 0.5 -0.1905852109193802 3.306201457977295 -0.9190084338188171
575 0.0 -8.611292839050293 -0.9853072166442871 0.5 0.5 0.5 3.890088464686414e-07 3.1425819396972656 -0.9450886845588684
576 7.421128600526572e-09 -7.463349342346191 -0.9238548278808594 0.5 0.5 0.5 5.095199639981729e-07 -2.988874673843384 -0.9405919313430786
577 0.18289776146411896 -7.463316917419434 -0.9058565497398376 0.5 0.5 0.5 0.19828829169273376 -3.3236074447631836 -0.9053431749343872
578 0.3587668538093567 -7.463218688964844 -0.8525532484054565 0.5 0.5 0.5 0.3652270436286926 -4.19411563873291 -0.8041636347770691
579 0.5208487510681152 -7.463059425354004 -0.7659934163093567 0.5 0.5 0.5 0.48038017749786377 -5.215139865875244 -0.6596085429191589
580 0.6629146933555603 -7.462845802307129 -0.6495035290718079 0.5 0.5 0.5 0.5497646927833557 -6.02682638168335 -0.5066117644309998
581 0.7795052528381348 -7.462584972381592 -0.5075600743293762 0.5 0.5 0.5 0.5921353101730347 -6.549139022827148 -0.3641568124294281
582 0.8661397695541382 -7.462287425994873 -0.34561803936958313 0.5 0.5 0.5 0.6192821264266968 -6.851438045501709 -0.23310548067092896
583 0.9194890260696411 -7.4619646072387695 -0.16990070044994354 0.5 0.5 0.5 0.6351557970046997 -7.005825996398926 -0.10897660255432129
584 0.937502920627594 -7.4616289138793945 0.012839226052165031 0.5 0.5 0.5 0.6404427886009216 -7.053016185760498 0.012142544612288475
585 0.9194890856742859 -7.4612932205200195 0.1955791413784027 0.5 0.5 0.5 0.63514244556427 -7.005497455596924 0.13309593498706818
586 0.8661397695541382 -7.460970401763916 0.3712964951992035 0.5 0.5 0.5 0.6192577481269836 -6.850773334503174 0.2566852271556854
587 0.7795052528381348 -7.460672378540039 0.5332386493682861 0.5 0.5 0.5 0.5921048521995544 -6.548122406005859 0.38668450713157654
588 0.6629146933555603 -7.46041202545166 0.6751821041107178 0.5 0.5 0.5 0.5497339367866516 -6.025434970855713 0.5273293256759644
589 0.5208486914634705 -7.460197925567627 0.7916720509529114 0.5 0.5 0.5 0.48035427927970886 -5.2133660316467285 0.6775228381156921
590 0.35876670479774475 -7.460039138793945 0.878231942653656 0.5 0.5 0.5 0.36521008610725403 -4.192019462585449 0.8185587525367737
591 0.18289753794670105 -7.4599409103393555 0.9315351843833923 0.5 0.5 0.5 0.19828015565872192 -3.3213179111480713 0.9167423844337463
592 -2.980561077947641e-07 -7.4599080085754395 0.9495334029197693 0.5 0.5 0.5 -3.717570677963522e-07 -2.9865217208862305 0.9508400559425354
593 -0.1828981190919876 -7.4599409103393555 0.9315350651741028 0.5 0.5 0.5 -0.19828088581562042 -3.321319341659546 0.9167421460151672
594 -0.35876724123954773 -7.460039138793945 0.8782317042350769 0.5 0.5 0.5 -0.36521032452583313 -4.192024230957031 0.8185582160949707
595 -0.5208491683006287 -7.460197925567627 0.7916717529296875 0.5 0.5 0.5 -0.4803542494773865 -5.21337366104126 0.6775222420692444
596 -0.6629151105880737 -7.46041202545166 0.6751817464828491 0.5 0.5 0.5 -0.549733579158783 -6.025442123413086 0.5273287296295166
597 -0.7795055508613586 -7.460672378540039 0.5332381725311279 0.5 0.5 0.5 -0.5921044945716858 -6.548126697540283 0.3866841197013855
598 -0.8661400675773621 -7.460970401763916 0.3712959289550781 0.5 0.5 0.5 -0.6192575693130493 -6.850777626037598 0.2566847801208496
599 -0.9194892048835754 -7.4612932205200195 0.1955784559249878 0.5 0.5 0.5 -0.6351421475410461 -7.005499362945557 0.1330953985452652
600 -0.937502920627594 -7.4616289138793945 0.01283839251846075 0.5 0.5 0.5 -0.6404425501823425 -7.0530171394348145 0.01214214600622654
601 -0.9194888472557068 -7.4619646072387695 -0.16990163922309875 0.5 0.5 0.5 -0.6351554989814758 -7.005826473236084 -0.10897725075483322
602 -0.8661393523216248 -7.462287425994873 -0.3456190228462219 0.5 0.5 0.5 -0.6192818284034729 -6.851437568664551 -0.23310624063014984
603 -0.7795045375823975 -7.462584972381592 -0.5075610876083374 0.5 0.5 0.5 -0.5921348929405212 -6.549137592315674 -0.36415761709213257
604 -0.6629137992858887 -7.462845802307129 -0.6495043635368347 0.5 0.5 0.5 -0.5497642755508423 -6.026822090148926 -0.5066126585006714
605 -0.5208476781845093 -7.463059425354004 -0.765994131565094 0.5 0.5 0.5 -0.48037970066070557 -5.215132236480713 -0.6596096754074097
606 -0.358765572309494 -7.463218688964844 -0.8525537848472595 0.5 0.5 0.5 -0.3652259111404419 -4.194104194641113 -0.8041647672653198
607 -0.18289633095264435 -7.463316917419434 -0.9058568477630615 0.5 0.5 0.5 -0.19828703999519348 -3.3236050605773926 -0.9053435921669006
608 0.19509032368659973 -6.31537389755249 -0.9700407385826111 0.5 0.5 0.5 0.1950903683900833 -0.0016878549940884113 -0.980904757976532
609 0.3826834559440613 -6.3152756690979 -0.9131280183792114 0.5 0.5 0.5 0.3826834261417389 -0.0015899246791377664 -0.9239920973777771
